0.310500,0.047240,-0.514700,0.046500,0.977800,-0.204100
-0.209800,-0.558300,0.268100,0.000003,0.359400,0.933200
0.113200,0.047150,-0.411600,0.000027,1.000000,-0.000031
-0.227700,0.535800,0.332800,0.024820,-0.516000,0.856200
0.251700,0.795200,0.443200,0.000000,-0.220200,0.975400
-0.088780,0.032670,-0.528400,0.001067,-0.462000,0.886900
-0.435200,-0.516100,0.234700,-0.979400,-0.073600,-0.188000
0.178100,-0.560300,0.269000,-0.002488,0.280100,0.960000
-0.388400,0.027950,-0.376200,0.883000,-0.469400,0.000013
-0.023070,0.805200,0.456800,0.000000,-0.955800,-0.294000
-0.394700,0.016160,-0.309000,0.882800,-0.469700,-0.000060
-0.390000,0.025000,-0.205900,0.883000,-0.469400,-0.000013
-0.435400,-0.763300,-0.407800,-0.998600,-0.024660,0.045940
-0.383800,0.036770,-0.322400,0.857100,-0.515200,0.000000
0.126300,-0.563000,0.247600,0.000000,0.092960,-0.995700
0.094900,0.019560,-0.535300,0.004948,0.469700,-0.882800
-0.409400,0.531100,0.319400,0.560000,-0.375500,0.738500
0.139700,0.803700,0.445800,0.000000,0.488100,-0.872800
0.398800,-0.010990,-0.480500,-0.819600,-0.534600,0.206000
0.005309,0.047150,0.117100,0.000000,1.000000,0.000000
-0.335200,-0.580800,0.255600,0.000000,-0.995200,0.098210
0.000867,0.640900,0.384600,-0.020540,0.488000,-0.872600
-0.362400,0.727500,0.410100,0.102900,0.471200,-0.876000
-0.303900,0.809700,0.448700,0.001157,0.480300,-0.877100
-0.417800,-0.569000,0.273900,0.000502,0.250400,0.968100
0.248800,-0.580600,0.253400,0.000000,-0.848500,-0.529200
-0.317300,-0.563000,0.247600,0.000000,0.092970,-0.995700
-0.415900,-0.673300,-0.380300,-0.001842,0.486400,-0.873800
0.434800,0.070050,0.040470,0.995100,0.033480,-0.092870
0.221900,0.047150,-0.455000,0.000023,1.000000,0.000032
0.233800,0.046260,-0.111800,0.000000,-1.000000,0.000000
-0.408400,-0.682800,0.282500,0.999500,-0.011980,-0.029420
-0.245600,0.046260,-0.326900,0.000000,-1.000000,0.000000
0.251700,0.046260,-0.219400,0.000000,-1.000000,0.000000
-0.012610,0.047150,-0.394100,0.000000,1.000000,0.000000
0.139700,0.046260,0.121200,0.000000,-1.000000,0.000000
-0.147000,0.047150,0.098760,0.000000,1.000000,0.000000
0.090430,0.046260,-0.430000,0.000000,-1.000000,0.000000
0.408600,0.056560,0.049480,-0.995700,-0.043030,0.082540
0.400800,0.005560,-0.282100,0.882900,0.469500,0.000000
0.309700,-0.002577,-0.544400,0.214400,0.476100,-0.852900
0.231300,0.008047,0.192800,0.051860,0.390900,0.919000
-0.182900,0.046260,-0.425500,0.000000,-1.000000,0.000000
0.405700,-0.003220,-0.013310,0.857100,0.449800,-0.251200
-0.182900,0.047150,0.085320,0.000000,1.000000,0.000000
-0.133600,0.047150,-0.080470,0.000000,1.000000,0.000000
0.068040,0.047150,-0.349300,0.000000,1.000000,0.000000
0.027710,0.047150,-0.188000,0.000000,1.000000,0.000000
-0.330700,0.809700,0.448800,-0.002871,0.493600,-0.869700
0.157700,0.047150,-0.022220,0.000000,1.000000,0.000000
0.072510,0.046260,0.130100,0.000000,-1.000000,0.000000
0.386600,0.019970,0.124000,-0.862700,-0.469900,-0.187000
-0.435400,-0.655900,0.282500,-1.000000,0.000037,0.000037
-0.165000,0.829600,0.460000,0.000000,0.548800,-0.835900
-0.070880,0.046260,-0.004308,0.000000,-1.000000,0.000000
0.009775,0.046260,-0.161100,0.000000,-1.000000,0.000000
0.397900,0.009128,0.046100,-0.882900,-0.469600,-0.000000
0.301000,0.046260,0.058420,0.000000,-1.000000,0.000000
-0.205300,0.047150,0.045000,0.000000,1.000000,0.000000
-0.249700,0.047150,0.165800,0.000000,0.999100,0.043450
0.305500,0.047150,-0.134200,0.000000,1.000000,0.000000
0.099410,0.047150,-0.026700,0.000000,1.000000,0.000000
-0.294900,0.045470,0.166500,0.000095,-0.959200,-0.282800
-0.151500,0.046260,-0.304500,0.000000,-1.000000,0.000000
-0.317300,0.047150,-0.067020,0.000000,1.000000,0.000000
-0.366600,0.046260,-0.331400,-0.001258,-1.000000,0.000000
0.345800,0.047150,-0.353800,-0.000015,1.000000,0.000031
0.171100,0.047150,-0.228300,0.000000,1.000000,0.000000
-0.142600,0.046260,-0.492700,0.000000,-1.000000,0.000000
-0.173900,0.046260,-0.183500,0.000000,-1.000000,0.000000
0.090430,0.046260,-0.389700,0.000000,-1.000000,0.000000
-0.057440,0.046260,-0.179100,0.000000,-1.000000,0.000000
0.144200,0.046260,-0.416500,0.000000,-1.000000,0.000000
-0.066380,0.047150,-0.237300,0.000000,1.000000,0.000000
-0.281500,0.046260,0.134600,0.000000,-1.000000,0.000000
-0.312800,0.046260,-0.282100,0.000000,-1.000000,0.000000
0.130800,0.047150,-0.371700,0.000000,1.000000,0.000000
0.014270,0.047150,-0.335900,0.000000,1.000000,0.000000
-0.111200,0.047150,-0.044620,0.000000,1.000000,0.000000
-0.196300,0.046260,-0.093920,0.000000,-1.000000,0.000000
-0.254600,0.047150,-0.062540,0.000000,1.000000,0.000000
0.085960,0.047150,-0.268700,0.000000,1.000000,0.000000
-0.088800,0.046260,-0.214900,0.000000,-1.000000,0.000000
0.327900,0.047150,0.022590,0.000000,1.000000,0.000000
0.023220,0.046260,-0.080480,0.000000,-1.000000,0.000000
0.032190,0.047150,-0.515100,0.000140,0.999500,-0.032980
-0.348700,0.046260,0.000172,0.000000,-1.000000,0.000000
0.211400,0.047150,-0.053580,0.000000,1.000000,0.000000
-0.017090,0.047150,0.130100,0.000000,1.000000,0.000000
0.175600,0.047150,-0.098390,0.000000,1.000000,0.000000
0.085950,0.046260,-0.134300,0.000000,-1.000000,0.000000
0.045620,0.046260,-0.134300,0.000000,-1.000000,0.000000
0.260700,-0.557400,0.259000,0.000000,0.959900,-0.280400
0.094920,-0.579200,0.261000,0.000000,-0.959800,0.280700
0.206900,0.791400,0.442700,0.000000,-0.113700,0.993500
0.287600,0.047150,-0.161100,0.000000,1.000000,0.000000
-0.205300,0.046260,-0.326900,0.000000,-1.000000,0.000000
0.148700,0.046260,0.139100,0.000000,-1.000000,0.000000
-0.409700,-0.189600,0.149300,0.800400,-0.214000,-0.559900
0.126300,0.047150,-0.125300,0.000000,1.000000,0.000000
0.287600,0.047150,-0.358300,0.000000,1.000000,0.000000
0.363800,0.046260,-0.291100,0.000201,-1.000000,0.000000
-0.227700,0.047150,-0.304500,0.000000,1.000000,0.000000
-0.326300,0.046260,-0.170100,0.000000,-1.000000,0.000000
-0.129100,0.047150,-0.188000,0.000000,1.000000,0.000000
0.283100,0.046260,0.161500,0.000000,-0.996600,-0.082460
-0.317300,0.047150,0.045000,0.000000,1.000000,0.000000
-0.075350,0.786900,0.440400,0.000000,0.026260,-0.999700
0.206900,0.046260,-0.201500,0.000000,-1.000000,0.000000
-0.142600,0.046260,0.139100,0.000000,-1.000000,0.000000
0.063540,0.046260,-0.201500,0.000000,-1.000000,0.000000
-0.357600,0.047150,-0.268700,-0.000006,1.000000,-0.000028
0.180000,0.046260,-0.470300,0.000000,-1.000000,0.000000
-0.021140,0.678300,0.408300,0.020150,-0.487600,0.872800
-0.151500,0.046260,-0.084960,0.000000,-1.000000,0.000000
0.135200,0.046260,-0.044640,0.000000,-1.000000,0.000000
-0.088800,0.046260,-0.138700,0.000000,-1.000000,0.000000
0.009791,0.047150,-0.286600,0.000000,1.000000,0.000000
-0.434800,0.523600,0.315500,-0.708500,-0.308300,0.634800
-0.415900,-0.356000,0.218100,0.072630,0.238900,0.968300
0.243000,0.672500,0.393600,-0.095250,0.414900,-0.904900
-0.408600,-0.759000,0.300400,0.986200,-0.018210,-0.164400
-0.223200,0.047150,-0.174600,0.000000,1.000000,0.000000
0.327900,0.047150,-0.156600,0.000000,1.000000,0.000000
-0.330800,0.046260,-0.134300,0.000000,-1.000000,0.000000
0.393100,0.699600,0.390100,-0.098720,0.425600,-0.899500
-0.420100,0.709000,0.392500,-0.006594,0.488700,-0.872400
-0.321100,-0.011480,0.197100,0.160000,-0.783300,-0.600700
-0.366600,0.046260,-0.026710,-0.001258,-1.000000,0.000000
-0.429400,0.468800,0.285600,-0.022920,-0.488100,0.872500
0.434200,0.656800,0.389200,0.680900,-0.369700,0.632200
-0.061970,0.646400,0.390600,0.014150,-0.406400,0.913600
-0.160500,0.046260,0.076350,0.000000,-1.000000,0.000000
0.090480,0.596200,0.357500,-0.020680,0.488600,-0.872300
0.126300,-0.577100,0.268300,0.000000,-0.955800,0.293900
-0.427800,-0.722000,0.313400,-0.008809,0.252500,0.967500
0.417500,-0.409000,-0.232500,0.002887,0.488700,-0.872400
0.310200,0.047150,-0.282400,-0.000016,1.000000,0.000008
-0.382100,0.732100,0.411200,-0.103100,-0.470900,0.876200
-0.380400,0.044820,-0.179100,-0.780300,0.625400,0.000000
-0.405500,-0.002150,-0.308600,-0.882500,0.470400,-0.000000
0.269700,0.001463,-0.544000,0.004979,0.469600,-0.882800
-0.396600,0.631000,0.359900,0.301300,0.465200,-0.832300
0.148700,0.551200,0.331000,-0.020580,0.488100,-0.872500
0.435900,-0.306400,0.188400,0.999900,-0.004253,-0.015540
0.323400,0.046260,-0.501700,-0.012920,-0.999600,0.024740
0.117700,0.831300,0.461300,0.000000,0.747300,-0.664400
0.050110,-0.556500,0.262100,0.000000,0.953500,-0.301500
-0.175400,0.824500,0.477500,-0.000022,0.834500,0.551100
-0.178700,0.047150,-0.492600,0.000000,1.000000,0.000000
-0.395000,0.561800,0.324000,-0.301800,-0.464900,0.832300
-0.272600,0.047150,-0.389300,0.000004,1.000000,0.000004
-0.408400,0.477800,0.273500,0.999900,0.004943,-0.008885
0.435300,-0.781500,0.326100,0.924900,-0.070350,0.373500
-0.435400,-0.584200,0.264500,-1.000000,0.000037,0.000149
-0.142200,-0.582100,-0.303600,-0.012420,-0.565800,0.824500
-0.434800,-0.735600,-0.388400,-0.672400,-0.329200,0.662900
-0.389900,0.027080,-0.031190,-0.882900,0.469700,0.000000
0.034800,-0.010810,0.201300,-0.000002,-0.528200,-0.849100
-0.435000,-0.743800,0.318400,-0.869600,0.199400,0.451700
-0.214300,0.020860,-0.536400,0.004719,0.469700,-0.882800
-0.380000,-0.563000,0.247600,0.000000,0.092970,-0.995700
-0.142600,0.616100,0.376300,0.020640,-0.488200,0.872500
-0.393000,0.021180,-0.120800,-0.882900,0.469500,0.000000
0.297300,0.795300,0.466100,-0.152900,-0.988100,-0.017550
-0.241200,0.047150,-0.411900,-0.000004,1.000000,-0.000004
0.175600,0.534900,0.322700,0.024000,-0.883100,0.468700
-0.435400,0.486700,0.286900,-0.999900,-0.005179,0.009233
-0.236700,-0.573600,-0.306100,0.000000,0.819300,0.573300
-0.066550,0.741400,0.437100,0.051150,0.147000,-0.987800
-0.048880,0.005344,0.194200,-0.017400,0.435700,0.899900
0.410600,-0.503800,-0.285000,-0.592900,0.423600,-0.684900
0.162100,0.680800,0.405300,0.020370,-0.488100,0.872500
0.103900,0.539100,0.325300,-0.015590,0.426700,-0.904300
-0.408600,-0.440800,0.228700,0.999700,-0.018460,-0.018390
-0.420700,0.751500,0.419000,-0.850900,0.468400,0.237800
-0.144100,-0.556200,0.267100,-0.001727,0.915000,0.403400
-0.418100,-0.666900,-0.349400,0.030130,-0.490000,0.871200
-0.187400,-0.010070,-0.552500,0.005197,0.339100,-0.940700
-0.418000,-0.170200,0.170700,-0.004871,0.251400,0.967900
-0.294800,0.565000,0.351300,-0.003223,-0.515200,0.857100
-0.223300,0.655400,0.399400,-0.028630,-0.524500,0.850900
-0.390000,0.783600,0.456200,-0.726600,0.605600,0.324500
0.009722,0.664200,0.399600,0.020620,-0.488100,0.872500
0.449100,-0.033040,0.036020,1.000000,0.000000,0.000000
-0.272700,0.757300,0.429800,0.063270,0.450200,-0.890700
0.343400,0.737600,0.417100,0.079150,-0.486400,0.870100
0.238300,-0.570500,-0.321600,0.000000,0.536400,-0.844000
-0.129100,-0.580100,0.257900,0.000000,-0.961100,0.276300
-0.147000,0.045530,-0.515700,-0.001200,-0.966300,0.257400
0.193400,0.731200,0.424600,-0.068730,0.359000,-0.930800
0.448600,-0.019610,0.089790,0.999300,-0.037320,0.000061
-0.406900,0.001748,-0.003495,-0.232400,0.773000,-0.590300
-0.272600,0.588100,0.363700,0.020400,-0.488100,0.872500
-0.434700,0.381700,0.210100,-0.357600,0.502800,-0.787000
0.328100,0.772300,0.432800,-0.063620,0.450300,-0.890600
0.408800,-0.198800,0.166000,-1.000000,0.000519,0.000520
0.337800,0.020860,0.177900,0.316100,0.443200,0.838800
0.045620,0.046260,-0.223900,0.000000,-1.000000,0.000000
0.233800,0.046260,-0.084960,0.000000,-1.000000,0.000000
-0.303900,0.046260,-0.165600,0.000000,-1.000000,0.000000
-0.348700,0.046260,-0.362800,0.000000,-1.000000,0.000000
0.420200,-0.397700,0.201700,-0.000087,-0.250700,-0.968100
0.032190,-0.581900,-0.328000,0.000000,0.409900,-0.912100
0.119600,0.551500,0.331800,-0.020290,0.487400,-0.873000
-0.435500,-0.297400,-0.161200,-1.000000,-0.004639,0.008270
0.220400,0.046260,-0.497200,0.000000,-1.000000,0.000000
-0.142600,0.046260,-0.407600,0.000000,-1.000000,0.000000
0.162100,0.047150,-0.116300,0.000000,1.000000,0.000000
0.233800,0.046260,-0.300000,0.000000,-1.000000,0.000000
0.005310,0.047150,-0.371300,0.000000,1.000000,0.000000
0.251700,0.046260,-0.322400,0.000000,-1.000000,0.000000
-0.039500,0.795200,0.442900,0.000000,-0.301900,0.953300
0.354900,0.025770,-0.509600,0.633900,0.482200,-0.604700
-0.164900,0.586800,0.358300,-0.020530,0.487800,-0.872700
0.381400,0.043800,-0.043150,0.832000,0.554500,0.016400
0.292600,0.764700,0.431500,-0.063610,0.450000,-0.890700
0.423500,-0.341200,0.214600,-0.024850,0.280100,0.959600
-0.052940,0.047150,-0.004294,0.000000,1.000000,0.000000
0.023220,0.046260,0.044980,0.000000,-1.000000,0.000000
-0.030550,0.046260,-0.465800,0.000000,-1.000000,0.000000
-0.290400,-0.583700,-0.328600,0.000000,-0.037370,-0.999300
-0.396000,0.013050,-0.385200,0.854000,-0.519700,-0.024570
0.209900,0.045640,0.172600,0.000000,0.778100,0.628200
0.238200,0.047150,-0.447500,-0.000027,1.000000,-0.000001
-0.093270,0.047150,-0.040140,0.000000,1.000000,0.000000
-0.039510,0.046260,-0.125300,0.000000,-1.000000,0.000000
0.180000,0.046260,-0.331400,0.000000,-1.000000,0.000000
-0.196300,0.046260,-0.367300,0.000000,-1.000000,0.000000
0.090430,0.046260,-0.286600,0.000000,-1.000000,0.000000
0.050120,0.047150,-0.326900,0.000000,1.000000,0.000000
-0.232200,0.046260,0.139100,0.000000,-1.000000,0.000000
-0.165000,0.046260,-0.228300,0.000000,-1.000000,0.000000
0.274100,0.046260,-0.071520,0.000000,-1.000000,0.000000
0.117500,0.671300,0.398900,-0.020850,0.488000,-0.872600
0.408400,-0.010440,-0.180500,-0.852200,-0.523200,0.004462
-0.061900,0.047150,-0.304500,0.000000,1.000000,0.000000
0.251700,0.046260,-0.044640,0.000000,-1.000000,0.000000
0.233800,0.046260,-0.335900,0.000000,-1.000000,0.000000
0.130800,0.023300,-0.532200,-0.004817,-0.469700,0.882800
0.144200,0.046260,-0.259700,0.000000,-1.000000,0.000000
0.220400,0.046260,-0.152200,0.000000,-1.000000,0.000000
0.148700,0.046260,-0.062560,0.000000,-1.000000,0.000000
0.202400,0.046260,-0.165600,0.000000,-1.000000,0.000000
0.171100,0.047150,-0.246300,0.000000,1.000000,0.000000
0.310000,0.047150,-0.170100,0.000000,1.000000,0.000000
0.175600,0.047150,0.116700,0.000000,1.000000,0.000000
0.041140,0.046260,-0.152200,0.000000,-1.000000,0.000000
-0.129100,0.046260,0.125600,0.000000,-1.000000,0.000000
-0.209800,-0.570500,-0.321600,0.000000,0.536400,-0.844000
0.189000,-0.559700,0.251700,0.000000,0.941500,-0.337000
0.162100,0.047150,-0.421000,0.000000,1.000000,0.000000
-0.169400,0.047150,-0.277600,0.000000,1.000000,0.000000
0.256200,0.046260,-0.430000,0.000000,-1.000000,0.000000
0.176700,0.822900,0.479600,0.000000,0.741500,0.671000
0.435700,-0.337700,-0.179000,0.999900,-0.004978,0.008846
0.180000,0.575300,0.344700,0.020560,-0.487600,0.872800
0.054640,0.733900,0.434900,-0.033980,0.316600,-0.948000
-0.370700,0.656600,0.380100,-0.140000,-0.362200,0.921500
-0.156100,0.544700,0.335500,0.020310,-0.487900,0.872600
-0.160200,0.014580,-0.539400,0.004657,0.469600,-0.882900
0.113200,0.042810,-0.522900,0.004641,0.479800,-0.877400
0.372600,0.047150,-0.371300,0.031440,0.999500,0.000000
0.417500,0.243600,0.132300,0.001575,0.488400,-0.872600
0.215900,0.696900,0.407000,-0.093770,0.377100,-0.921400
0.408700,0.213400,0.134600,-0.999900,-0.008779,0.008825
0.415100,-0.152600,0.166100,-0.142800,0.271400,0.951800
-0.359300,-0.009341,0.184400,-0.627600,0.441300,0.641300
0.099390,0.046260,0.157000,0.000000,-1.000000,0.000280
-0.084360,0.674400,0.407600,0.020500,-0.488500,0.872300
0.148800,0.760900,0.439400,-0.041560,0.242700,-0.969200
-0.408600,-0.265900,0.171200,0.981700,-0.027530,-0.188500
0.435700,0.504800,0.300500,0.993500,-0.059580,0.096610
-0.147000,-0.565800,0.248300,0.000000,-0.264800,-0.964300
0.435600,-0.499000,-0.259700,0.984300,-0.082390,0.155900
0.435700,-0.185400,-0.093910,0.999900,-0.004910,0.008811
-0.345200,-0.010350,-0.542100,-0.258100,0.320000,-0.911600
0.099350,0.677300,0.404800,0.020890,-0.489000,0.872100
-0.196300,0.029970,-0.530500,-0.005034,-0.469700,0.882800
0.256200,0.046260,0.062900,0.000000,-1.000000,0.000000
-0.061970,0.674700,0.407200,0.020480,-0.488500,0.872300
-0.423400,-0.205700,0.152100,0.000035,-0.253900,-0.967200
-0.250300,0.047150,-0.228000,-0.000007,1.000000,0.000004
-0.399400,0.007316,-0.237300,0.882900,-0.469600,-0.000031
0.063560,0.023470,-0.532400,-0.005052,-0.469400,0.883000
-0.405500,-0.002150,-0.053220,-0.882500,0.470400,0.000000
-0.435400,-0.418400,0.219700,-1.000000,-0.000037,-0.000037
0.385600,0.032430,-0.141700,-0.883000,-0.469300,0.000000
-0.413300,-0.554000,0.242100,0.137900,-0.270900,-0.952700
-0.232200,0.620500,0.380900,0.020590,-0.488400,0.872400
-0.353200,-0.567400,-0.317600,0.000000,0.999900,-0.011420
-0.420400,0.499200,0.275200,-0.006791,0.488000,-0.872800
0.408800,0.320900,0.183900,-0.999800,0.008403,-0.015790
-0.325900,0.616200,0.371100,-0.171900,-0.373800,0.911400
0.359700,0.604900,0.344600,-0.147200,0.482500,-0.863400
0.220400,-0.568300,-0.320000,0.000000,0.799700,-0.600400
-0.354200,0.801500,0.471300,-0.320600,0.031990,0.946700
-0.429300,-0.608600,-0.316700,0.018730,-0.488700,0.872200
-0.433000,-0.769500,-0.433500,-0.226200,0.487400,-0.843400
-0.075420,0.711900,0.428200,0.026550,-0.458900,0.888100
0.139700,0.671900,0.400900,0.029790,-0.459900,0.887500
-0.105600,-0.557700,0.268300,-0.000030,0.406500,0.913600
0.435500,0.146500,0.102600,0.943600,-0.162500,0.288500
-0.236600,0.582700,0.357700,-0.020500,0.488300,-0.872400
-0.367000,0.023740,-0.502000,0.590500,-0.468100,0.657500
-0.434700,-0.022310,0.105800,-0.845200,-0.117600,-0.521400
-0.399300,0.009391,0.089790,-0.882400,0.469900,0.024260
-0.420000,-0.792400,-0.422800,0.005630,-0.852600,0.522500
0.422000,-0.239100,-0.137600,0.006393,0.487500,-0.873100
-0.097750,0.047150,-0.515100,0.000172,0.999800,-0.018620
0.435800,-0.727600,-0.403100,0.999000,-0.027550,0.035390
-0.435400,-0.709600,0.291400,-1.000000,-0.000555,-0.002333
0.023180,0.610000,0.369000,0.020740,-0.489400,0.871800
-0.393200,0.712100,0.399100,-0.024080,-0.495200,0.868400
0.363500,0.708900,0.399900,0.083290,-0.475100,0.876000
0.357800,0.008372,-0.518300,-0.624300,-0.471800,0.622600
-0.272500,-0.010010,-0.553000,0.005546,0.342500,-0.939500
-0.415900,-0.629500,0.289500,0.039220,0.245600,0.968600
-0.408300,-0.445300,-0.232800,0.999800,-0.008828,0.017750
-0.435400,-0.579600,-0.304700,-0.998400,-0.026800,0.049670
-0.294900,-0.567000,0.270900,0.024770,0.314300,0.949000
0.386500,0.593300,0.333500,-0.149100,0.483800,-0.862400
0.343300,0.047150,-0.214000,-0.000027,1.000000,0.000004
0.351300,0.047150,-0.464500,0.000011,1.000000,-0.000011
-0.003653,0.047150,0.143600,0.000000,1.000000,0.000000
-0.017100,-0.567400,-0.317600,0.000000,0.999900,-0.011420
0.408900,-0.046500,0.116700,-0.997500,-0.028910,-0.064100
-0.435500,-0.409400,-0.223900,-1.000000,-0.004720,0.008317
-0.034650,0.805400,0.473600,0.000000,-0.495400,0.868600
-0.432800,-0.079490,-0.021190,-0.120900,-0.508300,0.852700
0.433700,-0.159000,-0.065790,0.360300,-0.410000,0.837900
0.108400,-0.583700,-0.328600,0.000000,-0.037640,-0.999300
-0.408500,0.092020,0.094360,0.994900,0.098230,-0.021080
0.051600,-0.006458,0.199900,0.000000,0.470000,0.882600
0.287600,-0.558300,0.255800,0.000000,0.954200,-0.299300
0.253800,0.704100,0.407300,0.100700,-0.482600,0.870000
-0.420400,-0.587000,-0.332000,-0.007065,0.487700,-0.873000
-0.408500,-0.001557,0.116700,0.929700,0.322600,0.177800
-0.408700,0.213400,0.134600,0.996700,0.039120,-0.070480
0.215900,0.046260,-0.331400,0.000000,-1.000000,0.000000
0.435100,-0.691600,-0.367400,0.998500,-0.024930,0.049380
-0.435500,0.625700,0.354100,-1.000000,-0.004296,0.007687
0.408800,-0.660400,0.278000,-1.000000,-0.003411,-0.008953
-0.415900,0.684800,0.406200,-0.022130,-0.481700,0.876100
-0.124700,0.570200,0.350200,0.020300,-0.488000,0.872600
0.408700,-0.122700,-0.053580,-1.000000,0.004497,-0.007879
-0.415900,0.440300,0.269500,0.028520,-0.481200,0.876100
-0.274400,0.535700,0.333100,-0.016630,-0.742500,-0.669600
-0.102000,0.745700,0.436300,0.076520,0.324400,-0.942800
0.135200,0.818400,0.453600,0.000000,0.493300,-0.869900
-0.435400,-0.521400,0.251100,-1.000000,0.003581,0.004989
-0.076850,-0.575500,-0.303300,-0.004193,0.751900,0.659300
0.439600,-0.050690,-0.012960,0.982800,-0.069480,-0.170800
0.435600,-0.055300,0.117200,0.963500,-0.028660,-0.266100
0.081480,-0.576100,0.271200,0.000000,-0.823700,0.567000
0.323700,0.666200,0.382100,-0.100300,0.429200,-0.897600
0.296300,0.047150,-0.292400,0.000003,1.000000,0.000004
0.296200,0.829000,0.461700,0.126800,0.990900,0.044710
-0.435400,-0.539400,0.255600,-1.000000,0.000399,0.001959
0.036620,0.704400,0.419400,-0.020240,0.488300,-0.872500
-0.277000,0.657400,0.395300,-0.130500,-0.331100,0.934500
0.435900,0.029690,0.103200,1.000000,-0.003736,-0.003732
-0.379900,0.040720,-0.454000,-0.852400,0.470900,-0.227400
0.229900,0.764700,0.436000,-0.063590,0.450100,-0.890700
0.082970,0.043160,0.173500,0.000000,0.526700,0.850000
0.448700,-0.019620,0.071880,0.998500,-0.049490,0.024720
-0.076860,-0.575900,0.251200,0.000182,-0.313400,-0.949600
0.390200,0.023590,-0.007286,-0.883200,-0.469100,0.000000
0.269500,0.724000,0.415900,0.079370,-0.516600,0.852500
0.408700,0.446400,0.255600,-0.999800,0.008354,-0.015610
0.384000,0.035370,0.089790,-0.882300,-0.470600,-0.008319
0.435600,-0.552800,-0.304500,0.996700,-0.032770,0.073820
0.190500,0.830500,0.466000,-0.024660,0.922600,0.384900
-0.399400,0.584400,0.335000,-0.121900,-0.516600,0.847500
-0.419300,-0.775400,0.299400,0.000236,-0.251300,-0.967900
0.381000,0.041300,-0.325400,-0.767300,-0.640800,0.024760
-0.053030,0.706300,0.424500,0.013220,-0.473800,0.880500
0.376200,0.046910,-0.429600,0.228100,0.973600,0.005179
-0.426000,-0.155900,0.166500,-0.030150,0.248600,0.968100
-0.254600,0.786900,0.440400,-0.000036,0.026050,-0.999700
-0.200800,0.799200,0.469400,0.000000,-0.944600,0.328300
0.229300,-0.580800,0.255600,0.000000,-0.995200,0.098210
-0.033530,-0.585400,-0.327900,0.000000,-0.696800,-0.717300
0.408700,-0.328800,-0.170100,-1.000000,0.001370,-0.001736
0.355900,0.017250,0.172100,-0.480700,-0.487300,-0.729000
-0.099630,-0.593200,-0.314400,0.000000,-0.899100,-0.437800
-0.287800,0.615600,0.377000,-0.144400,-0.375500,0.915500
-0.232100,0.554100,0.341600,-0.020620,0.488300,-0.872400
-0.424800,-0.644800,-0.364300,-0.007590,0.488600,-0.872500
0.216300,0.027820,-0.530300,0.004784,0.469600,-0.882900
0.352200,0.810700,0.459500,0.528100,0.728500,0.436300
0.054640,0.681800,0.406300,-0.020630,0.488700,-0.872200
-0.434500,-0.478800,0.223100,-0.685900,-0.180200,-0.705000
-0.386800,0.032970,-0.416500,-0.882900,0.469500,0.000000
-0.397100,0.781600,0.433600,-0.240800,0.586300,-0.773500
-0.362100,0.047150,-0.044620,0.000000,1.000000,0.000000
0.275000,0.047150,-0.262900,0.000022,1.000000,-0.000022
0.324300,0.013460,-0.530000,-0.194400,-0.506200,0.840200
0.430900,-0.283500,0.172200,0.156300,-0.231000,-0.960300
0.413600,-0.170200,-0.099080,-0.020500,0.480000,-0.877000
-0.052920,0.014900,-0.537700,0.013560,-0.425600,0.904800
0.014250,0.019750,-0.535700,0.004916,0.469600,-0.882900
0.426500,-0.651500,0.295200,0.003749,0.248200,0.968700
0.422000,0.686000,0.379600,0.006754,0.488800,-0.872300
0.260700,0.035130,0.176800,0.000000,-0.469800,-0.882800
-0.334900,0.033610,-0.520900,-0.228400,0.469200,-0.853000
-0.408400,-0.646900,0.282500,1.000000,0.000076,0.000187
-0.386800,0.032970,0.076350,-0.882900,0.469500,0.000000
-0.429700,0.319400,0.202100,-0.029000,-0.485900,0.873500
-0.432800,0.551000,0.304500,-0.089070,0.477500,-0.874100
-0.389400,-0.591600,-0.317300,0.000010,-0.865900,-0.500100
0.202500,-0.003541,0.198400,-0.000016,0.425800,0.904800
-0.416300,-0.590000,0.279300,0.014760,0.246500,0.969000
-0.435500,0.101400,0.062880,-1.000000,-0.001346,0.001576
0.225000,0.683300,0.400400,-0.094770,0.399500,-0.911800
0.278600,0.806800,0.447300,-0.006443,0.466300,-0.884600
0.397800,0.011520,-0.114800,0.912600,0.407600,0.030730
0.310100,0.638200,0.372100,0.103000,-0.436100,0.894000
-0.362100,0.798000,0.442300,-0.003968,0.493800,-0.869600
0.408700,-0.149500,-0.075990,-0.999900,0.004979,-0.008842
0.283100,-0.007425,-0.548600,0.005048,0.450800,-0.892600
0.445200,-0.064930,0.021970,-0.972200,0.115600,0.203800
0.426500,0.067040,0.060170,-0.057170,-0.488000,0.871000
0.231900,0.800400,0.465200,0.000000,-0.886700,-0.462300
-0.191800,0.791100,0.440500,0.000000,0.121200,-0.992600
0.068300,0.725200,0.430200,-0.022750,0.483300,-0.875200
-0.127600,0.034470,0.178700,-0.006438,0.438500,0.898700
-0.043920,0.674900,0.404700,-0.020630,0.488100,-0.872500
-0.173900,0.800800,0.444100,0.000000,0.486900,-0.873500
-0.382500,-0.007577,0.159400,-0.628000,0.459300,0.628200
0.426500,-0.714800,0.311600,0.001839,0.247600,0.968900
-0.203800,0.002401,0.195200,-0.024440,0.426900,0.903900
-0.388800,0.013770,-0.476400,-0.852900,0.469700,-0.227900
-0.420400,-0.195000,0.177100,-0.037530,0.246000,0.968500
0.323800,0.615300,0.356600,-0.149100,0.482400,-0.863200
-0.338200,-0.560800,0.268500,0.000041,0.257200,0.966400
-0.272500,0.020960,-0.536700,0.004950,0.469600,-0.882900
0.018740,0.046260,0.152500,0.000000,-1.000000,0.000000
-0.165000,0.046260,0.139100,0.000000,-1.000000,0.000000
0.413400,-0.283500,0.172200,-0.131100,-0.244100,-0.960800
0.319000,0.559000,0.327800,-0.178200,0.421400,-0.889200
-0.008086,0.606300,0.365500,-0.020440,0.488500,-0.872300
0.072470,0.702700,0.419700,0.020540,-0.488500,0.872300
-0.099250,0.013630,0.189200,-0.000018,0.470100,0.882600
0.023230,0.010680,0.190800,0.000005,0.470000,0.882600
0.426500,0.209100,0.113100,0.008894,0.486900,-0.873400
-0.123100,0.005663,0.192500,-0.000000,-0.469800,-0.882800
-0.429300,-0.419100,0.235100,-0.029330,0.249400,0.968000
-0.061910,-0.556800,0.262300,0.000000,0.968800,-0.247800
-0.321800,0.794900,0.441300,-0.000148,0.276300,-0.961100
0.426500,-0.518100,-0.293500,0.009438,0.488800,-0.872300
-0.258700,0.553900,0.342100,-0.020640,0.487900,-0.872700
0.434200,-0.065850,0.141700,0.821300,0.198400,0.534800
-0.227900,0.687000,0.412300,-0.130400,-0.264400,0.955600
-0.415900,-0.170300,-0.099080,0.014270,0.491200,-0.870900
-0.061910,0.805600,0.452900,0.000000,-0.996900,0.078610
-0.070830,0.605200,0.366400,-0.020620,0.488500,-0.872300
0.431100,-0.519500,-0.267100,0.014140,-0.487600,0.872900
-0.111200,0.047150,0.157000,0.000000,1.000000,-0.000011
-0.408600,-0.476600,0.237700,0.999700,-0.024840,-0.006099
-0.429300,-0.156200,-0.091150,-0.033830,0.485500,-0.873600
-0.435400,-0.055450,0.130100,-1.000000,0.000467,0.001906
0.373400,0.045560,-0.192500,-0.259300,-0.965800,0.000000
0.420500,-0.798500,0.310300,-0.020180,-0.693800,-0.719900
0.410800,-0.283600,-0.162100,-0.424500,0.408000,-0.808300
0.409500,-0.011540,-0.282100,0.975200,-0.221500,0.000003
0.385400,0.034490,-0.096910,0.882500,0.470400,-0.000023
-0.012220,0.726900,0.433100,-0.020570,0.488500,-0.872300
-0.290200,0.047150,-0.327100,0.000000,1.000000,0.000000
0.117300,-0.009682,-0.550600,0.005225,0.386900,-0.922100
-0.409600,0.154700,0.108800,0.513700,-0.380600,0.768900
0.247300,0.046260,0.148000,0.000000,-1.000000,0.000000
-0.353200,0.046260,-0.470300,-0.000071,-1.000000,-0.000037
-0.302100,0.016540,0.187700,-0.099370,0.484000,0.869400
0.214000,-0.560200,0.269000,0.008740,0.277200,0.960800
0.434200,-0.411100,0.230900,0.761600,0.180600,0.622400
0.336900,0.791100,0.440300,-0.049650,0.234100,-0.971000
-0.308400,0.046260,-0.371700,0.000000,-1.000000,0.000000
-0.224700,0.011550,0.189300,0.000000,-0.470000,-0.882700
-0.244100,0.016650,0.187800,-0.024400,0.430800,0.902100
0.426500,0.735400,0.419200,0.982300,0.168800,0.081680
-0.016970,0.005198,-0.543600,0.005408,0.470000,-0.882700
0.408800,-0.637900,-0.353800,-0.999000,0.020210,-0.038800
0.278700,0.690600,0.400000,0.092030,-0.385100,0.918300
0.296600,-0.571200,0.272100,-0.003291,0.214500,0.976700
-0.038020,0.034260,0.178200,0.000000,0.470200,0.882600
-0.344300,0.782600,0.460800,0.056640,-0.552200,0.831800
-0.412200,-0.544000,-0.308000,0.072130,0.467600,-0.881000
0.408700,-0.378100,-0.205900,-0.999800,0.008346,-0.015690
0.435600,0.052140,0.090040,0.967200,-0.033060,-0.252000
-0.236700,-0.574200,0.272600,0.000000,-0.173400,0.984900
0.422000,-0.243800,-0.112900,-0.000307,-0.502700,0.864500
-0.111200,0.046260,-0.371700,0.000000,-1.000000,0.000000
-0.412100,0.009757,0.028240,-0.047090,-0.464800,0.884200
0.122000,0.047150,0.071860,0.000004,1.000000,-0.000007
-0.344700,0.672200,0.389100,0.138600,0.354000,-0.924900
0.435200,-0.642400,-0.340500,0.998500,-0.023890,0.048620
0.341400,0.046260,0.116700,0.000000,-1.000000,0.000000
0.072890,0.808500,0.475000,0.000000,-0.404600,0.914500
-0.412200,0.372500,0.204400,0.103900,0.517000,-0.849600
-0.093270,-0.580800,0.255600,0.000000,-0.995200,0.098210
0.402500,0.000532,-0.231300,-0.882100,-0.471000,-0.000029
0.315400,0.047150,-0.227000,0.000022,1.000000,-0.000022
-0.303900,0.046260,-0.340400,0.000000,-1.000000,0.000000
0.301000,0.046260,-0.093920,0.000000,-1.000000,0.000000
0.391700,0.022760,0.074860,0.882700,0.470000,0.000000
0.435300,-0.705200,-0.385200,0.994700,-0.039030,0.095490
0.354800,0.046260,-0.120800,0.000000,-1.000000,0.000000
-0.277000,0.046260,-0.259700,0.000000,-1.000000,0.000000
-0.102200,0.047150,-0.273100,0.000000,1.000000,0.000000
-0.254600,0.047150,-0.470300,0.000000,1.000000,0.000000
-0.232200,0.047150,0.161500,0.000000,1.000000,-0.000023
-0.182900,0.046260,-0.407600,0.000000,-1.000000,0.000000
-0.408500,-0.207900,-0.116100,0.995300,0.045900,-0.085780
0.379700,0.045810,-0.068520,0.584200,0.811600,-0.000000
-0.435400,0.459900,0.269000,-0.999900,-0.005027,0.008936
0.410000,-0.498000,-0.256200,-0.633000,-0.375600,0.676900
0.409500,-0.011540,-0.201500,0.972800,-0.231500,-0.000262
0.148700,0.047150,-0.291100,0.000000,1.000000,0.000000
0.117300,0.047150,0.152500,0.000000,1.000000,0.000000
-0.241100,0.046260,-0.362800,0.000000,-1.000000,0.000000
0.446700,-0.001704,0.103400,-0.944300,0.094080,-0.315300
-0.236700,0.046260,-0.049120,0.000000,-1.000000,0.000000
0.032190,0.760100,0.441900,0.000000,-0.012960,0.999900
0.099410,0.047150,0.139100,0.000000,1.000000,0.000000
-0.008148,0.046260,-0.349300,0.000000,-1.000000,0.000000
-0.281500,0.046260,0.036020,0.000000,-1.000000,0.000000
-0.277000,0.047150,0.067400,0.000000,1.000000,0.000000
0.059060,0.046260,0.143600,0.000000,-1.000000,0.000000
-0.048470,0.046260,-0.111800,0.000000,-1.000000,0.000000
-0.223200,0.046260,-0.017750,0.000000,-1.000000,0.000000
0.269700,0.047150,-0.035660,0.000000,1.000000,0.000000
-0.084310,0.047150,0.134600,0.000000,1.000000,0.000000
-0.093270,0.047150,-0.255200,0.000000,1.000000,0.000000
0.041140,0.046260,-0.412100,0.000000,-1.000000,0.000000
0.099410,0.047150,-0.080470,0.000000,1.000000,0.000000
-0.406100,0.763300,0.443200,-0.838300,0.468500,0.279000
0.247300,0.047150,-0.398600,0.000000,1.000000,0.000000
0.323400,0.046260,0.116700,0.000000,-1.000000,0.000000
-0.294900,0.047150,-0.438900,0.000000,1.000000,0.000000
-0.353200,0.046260,-0.300000,0.000000,-1.000000,0.000000
-0.048470,0.046260,-0.277600,0.000000,-1.000000,0.000000
-0.402300,0.714300,0.420500,0.880400,-0.398000,0.257900
-0.005167,-0.008923,0.201400,-0.004290,0.434400,0.900700
0.434900,-0.776900,-0.421000,0.997500,-0.034060,0.062450
0.283100,0.047150,0.000187,0.000000,1.000000,0.000000
-0.026060,0.047150,-0.147700,0.000000,1.000000,0.000000
0.054580,0.046260,-0.501700,0.000000,-1.000000,0.000000
0.363800,0.047150,0.045000,-0.000011,1.000000,0.000000
-0.061920,0.046260,-0.058080,0.000000,-1.000000,0.000000
0.014260,0.046260,-0.040150,0.000000,-1.000000,0.000000
-0.358700,0.011760,-0.520700,-0.624000,0.469700,-0.624500
0.108400,0.047150,-0.067020,0.000000,1.000000,0.000000
-0.200800,0.047150,0.013630,0.000000,1.000000,0.000000
-0.106700,0.046260,-0.008789,0.000000,-1.000000,0.000000
0.000820,0.769000,0.440100,0.000000,0.012940,-0.999900
-0.209800,0.047150,0.062920,0.000000,1.000000,0.000000
-0.187400,0.046260,0.053940,0.000000,-1.000000,0.000000
0.162100,0.047150,0.053960,0.000000,1.000000,0.000000
-0.093270,0.047150,-0.197000,0.000000,1.000000,0.000000
0.121800,0.046260,0.031540,0.000000,-1.000000,0.000000
-0.425300,0.735300,0.429900,-0.953100,0.265800,0.144700
-0.435400,-0.691600,-0.367500,-0.998500,-0.025500,0.047710
0.377500,0.795300,0.440800,0.021910,0.531600,-0.846700
-0.402100,0.681700,0.386500,0.308600,-0.480900,0.820700
0.435900,-0.732000,0.304900,1.000000,0.003355,0.003356
-0.352900,0.047150,-0.452500,-0.000011,1.000000,0.000011
-0.232200,0.047150,-0.228300,0.000000,1.000000,0.000000
0.166600,0.047150,-0.179000,0.000000,1.000000,0.000000
-0.173900,0.047150,-0.147700,0.000000,1.000000,0.000000
-0.435400,-0.539400,-0.286600,-1.000000,-0.004732,0.008453
0.193500,0.046260,-0.134300,0.000000,-1.000000,0.000000
0.153200,0.046260,-0.228300,0.000000,-1.000000,0.000000
0.215900,0.047150,-0.134200,0.000000,1.000000,0.000000
-0.281500,0.046260,-0.125300,0.000000,-1.000000,0.000000
0.265200,0.046260,-0.125300,0.000000,-1.000000,0.000000
-0.434600,-0.366100,-0.181600,-0.245300,-0.533200,0.809700
0.085960,0.047150,-0.071510,0.000000,1.000000,0.000000
0.085950,0.046260,-0.183500,0.000000,-1.000000,0.000000
-0.052960,0.046260,-0.040150,0.000000,-1.000000,0.000000
0.417500,-0.540100,0.266400,-0.023860,0.249600,0.968100
0.352100,-0.011100,0.190300,-0.240900,-0.647600,-0.722900
-0.169500,0.046260,-0.098410,0.000000,-1.000000,0.000000
0.009775,0.046260,0.094270,0.000000,-1.000000,0.000000
-0.133600,0.046260,0.036020,0.000000,-1.000000,0.000000
-0.003667,0.046260,-0.492700,0.000000,-1.000000,0.000000
0.063560,0.047150,-0.040140,0.000000,1.000000,0.000000
-0.052960,0.046260,-0.084960,0.000000,-1.000000,0.000000
0.408600,-0.055450,-0.013260,-0.999600,-0.019440,0.021090
-0.408400,0.043130,0.103200,1.000000,0.000000,0.000112
-0.147000,0.047150,-0.022220,0.000000,1.000000,0.000000
0.287600,-0.011560,0.202200,0.000073,-0.032230,0.999500
-0.408400,-0.525900,0.255600,0.999800,0.008381,0.018620
0.408700,0.500200,0.291400,-0.999900,0.004909,-0.008814
0.363800,0.046260,-0.313500,0.000179,-1.000000,0.000011
0.323300,0.047150,0.143600,0.000000,1.000000,0.000000
-0.241100,0.047150,-0.295500,0.000000,1.000000,0.000000
0.318600,0.047150,-0.261300,-0.000002,1.000000,-0.000004
0.198000,0.046260,-0.479300,0.000000,-1.000000,0.000000
-0.115700,0.046260,-0.170100,0.000000,-1.000000,0.000000
0.292100,0.046260,-0.143200,0.000000,-1.000000,0.000000
-0.160500,0.047150,-0.403100,0.000000,1.000000,0.000000
-0.357600,0.046260,-0.232800,0.000000,-1.000000,0.000000
-0.241100,0.046260,-0.143200,0.000000,-1.000000,0.000000
-0.021590,0.046260,-0.501700,0.000000,-1.000000,0.000000
-0.035020,0.047150,-0.322400,0.000000,1.000000,0.000000
0.408700,-0.198800,-0.102900,-0.999900,0.004904,-0.008809
0.108400,0.047150,-0.188000,0.000000,1.000000,0.000000
0.036670,0.047150,-0.335900,0.000000,1.000000,0.000000
0.247300,0.046260,-0.013270,0.000000,-1.000000,0.000000
-0.200800,0.046260,0.161500,0.000000,-0.996600,-0.082460
-0.070650,0.047150,-0.483900,0.000000,1.000000,0.000000
-0.408900,0.038650,0.036020,0.995000,0.044940,-0.088710
-0.420400,0.125000,0.092130,-0.030890,-0.488000,0.872300
0.076990,0.046260,-0.210400,0.000000,-1.000000,0.000000
-0.308400,0.046260,0.058420,0.000000,-1.000000,0.000000
-0.115700,0.046260,-0.089440,0.000000,-1.000000,0.000000
-0.084310,0.047150,-0.344800,0.000000,1.000000,0.000000
0.169900,0.047150,-0.505800,0.001595,1.000000,0.001937
0.305500,0.047150,-0.022220,0.000000,1.000000,0.000000
0.206900,0.046260,0.000172,0.000000,-1.000000,0.000000
0.193500,0.046260,0.053940,0.000000,-1.000000,0.000000
0.027700,0.046260,-0.161100,0.000000,-1.000000,0.000000
0.171100,0.046260,0.022580,0.000000,-1.000000,0.000000
-0.272500,0.047150,-0.053580,0.000000,1.000000,0.000000
0.050100,0.046260,-0.183500,0.000000,-1.000000,0.000000
0.018750,0.047150,-0.125300,0.000000,1.000000,0.000000
-0.200800,0.693100,0.417500,-0.126800,-0.245100,0.961200
0.350500,0.047150,-0.407900,-0.000029,1.000000,0.000020
-0.111200,0.047150,-0.416500,0.000000,1.000000,0.000000
-0.147000,0.047150,-0.228300,0.000000,1.000000,0.000000
-0.133600,0.046260,-0.430000,0.000000,-1.000000,0.000000
-0.187400,0.046260,-0.125300,0.000000,-1.000000,0.000000
0.148200,0.722100,0.426400,0.068210,-0.360600,0.930200
0.036650,0.016750,-0.537200,0.004972,0.469700,-0.882800
0.211400,0.001601,-0.544200,0.005018,0.469700,-0.882800
-0.427800,-0.689700,0.277200,-0.000997,-0.253600,-0.967300
-0.214200,0.047150,-0.098390,0.000000,1.000000,0.000000
-0.335200,-0.584500,-0.305200,0.016630,-0.529900,0.847900
0.283500,0.021770,-0.533100,0.005004,0.469600,-0.882900
-0.156000,0.047150,-0.268700,0.000000,1.000000,0.000000
0.157600,0.046260,-0.349300,0.000000,-1.000000,0.000000
-0.245600,0.046260,-0.497200,0.000000,-1.000000,0.000000
0.274100,0.046260,-0.111800,0.000000,-1.000000,0.000000
-0.360600,-0.590000,-0.320000,0.000005,-0.865600,-0.500800
0.430900,-0.202500,0.151200,0.099860,-0.229700,-0.968100
0.406900,0.768400,0.427100,0.577500,0.668700,-0.468400
0.036660,0.828600,0.468900,-0.000034,0.913300,0.407200
0.363800,-0.579200,0.261000,0.000021,-0.959800,0.280600
0.399500,0.006187,-0.266100,-0.882800,-0.469700,-0.000031
-0.435400,0.343400,0.210600,-0.998600,-0.024690,0.046230
0.416000,-0.501100,0.256300,-0.028800,0.252400,0.967200
0.139700,0.654900,0.391400,0.020750,-0.488200,0.872500
0.287600,0.601800,0.354900,-0.103100,0.436600,-0.893800
-0.159000,0.007736,0.192400,-0.054600,0.468400,0.881900
-0.415900,-0.091880,0.150500,0.018650,0.250000,0.968100
-0.209500,0.580200,0.355700,-0.020880,0.488900,-0.872100
-0.416200,-0.105200,0.126000,0.004895,-0.249600,-0.968300
-0.165000,0.673100,0.408700,0.020500,-0.488600,0.872300
0.377700,0.043720,-0.171600,-0.502400,-0.864600,0.000000
-0.267800,0.701900,0.409000,0.123900,0.258900,-0.957900
-0.434700,-0.749500,-0.396300,-0.755400,-0.269800,0.597200
0.421600,0.068630,0.109000,-0.000122,0.250800,0.968000
-0.385500,0.615200,0.355000,0.301600,0.465100,-0.832300
0.272300,-0.593200,-0.314400,0.000000,-0.899100,-0.437800
0.408900,0.065700,0.085940,-0.974100,-0.028900,-0.224200
0.422000,-0.050670,-0.006048,-0.043450,-0.487400,0.872100
0.314500,0.046260,0.130100,0.000000,-1.000000,0.000000
0.224800,0.630000,0.375500,0.020220,-0.488200,0.872500
-0.434600,0.444900,0.245400,-0.401100,0.497800,-0.768900
-0.079770,0.751700,0.440800,-0.000835,-0.092010,0.995800
0.081520,0.555800,0.335200,-0.020620,0.488100,-0.872500
0.000829,0.047150,-0.272800,0.000000,1.000000,0.000000
-0.412000,-0.088370,-0.026330,0.079480,-0.492400,0.866700
0.433200,-0.587900,-0.332200,0.114200,0.515900,-0.849000
0.417700,0.114200,0.059960,0.000431,0.489000,-0.872300
-0.399300,0.009387,-0.031190,-0.882900,0.469500,0.000000
-0.052900,0.729100,0.435300,-0.016670,0.387400,-0.921800
0.081410,0.653800,0.392100,0.020480,-0.487700,0.872800
-0.129000,0.696900,0.420800,0.017370,-0.469700,0.882700
0.184500,0.046260,-0.008789,0.000000,-1.000000,0.000000
-0.432800,-0.338300,-0.165900,-0.205400,-0.458700,0.864500
-0.347700,0.551000,0.335100,-0.301400,-0.465400,0.832200
-0.382200,-0.009138,-0.512800,-0.643800,0.412700,-0.644400
-0.424900,0.549400,0.330600,0.006703,-0.487800,0.873000
0.358200,0.046850,0.143400,0.128500,0.984500,0.119500
0.408900,0.307600,0.192500,-0.928500,-0.174400,0.327900
-0.424800,0.303700,0.165900,-0.006593,0.487900,-0.872900
-0.133500,0.665100,0.403500,0.021140,-0.488700,0.872200
-0.128800,0.029170,-0.531500,0.005056,0.470200,-0.882500
-0.160500,0.610100,0.373400,0.020630,-0.488200,0.872500
-0.004081,0.574800,0.349900,0.020440,-0.487700,0.872800
-0.408400,-0.118200,0.139100,0.999700,-0.000914,-0.023610
-0.169400,-0.568300,-0.320000,0.000000,0.782300,-0.622900
-0.385800,0.005307,-0.498500,-0.672300,0.466900,-0.574400
0.090440,-0.581900,-0.328000,0.000000,0.409800,-0.912200
-0.250100,0.010000,-0.541400,-0.005114,-0.469700,0.882800
0.402100,0.594300,0.331400,-0.227500,0.475500,-0.849800
0.417700,-0.108500,-0.037440,0.015790,-0.481700,0.876200
-0.283000,0.040380,0.175500,0.006251,0.501100,0.865400
-0.283100,0.800600,0.461000,0.155600,-0.858100,-0.489400
0.367300,0.002718,0.174200,0.685800,0.427700,0.588900
-0.391600,0.022070,0.027050,0.904600,-0.424600,-0.036990
-0.408500,-0.687200,-0.380700,0.999500,0.015270,-0.029370
0.103900,0.570600,0.342900,-0.020580,0.488100,-0.872600
-0.435400,-0.266300,0.191900,-0.995600,0.012480,0.092880
-0.415900,-0.131800,0.160800,0.056930,0.250400,0.966500
-0.424900,0.182200,0.124100,0.006248,-0.487800,0.872900
-0.058930,0.043550,0.170600,0.000000,-0.847400,-0.531000
0.435600,0.218300,0.142800,0.939400,-0.160000,0.303300
-0.399900,-0.009922,-0.482900,-0.895300,0.381900,-0.229400
0.184500,0.017450,0.186200,0.000000,-0.470000,-0.882600
-0.115700,-0.571200,0.271900,-0.021980,0.275400,0.961100
0.251900,0.741400,0.423900,-0.062060,0.302500,-0.951100
-0.164700,0.655900,0.399100,0.020690,-0.488200,0.872500
0.434400,0.159600,0.111100,0.680900,-0.366300,0.634100
-0.272500,0.046260,0.004653,0.000000,-1.000000,0.000000
0.256200,0.556700,0.332500,0.020220,-0.487800,0.872700
0.077010,-0.006053,-0.548100,-0.004683,-0.470800,0.882200
-0.424800,0.231900,0.125800,-0.006563,0.488000,-0.872800
0.413600,0.200400,0.108100,-0.084420,0.512300,-0.854700
0.251700,0.811700,0.476500,-0.011700,-0.580200,0.814400
0.393300,0.017920,-0.303400,-0.883200,-0.469000,0.000000
-0.061920,-0.590200,-0.308300,0.017770,-0.500600,0.865500
0.375800,0.030870,-0.479600,-0.815400,-0.481300,0.321600
0.345200,-0.000087,-0.533500,0.228500,0.469500,-0.852900
-0.408400,-0.207800,0.166000,1.000000,-0.000037,-0.000037
-0.088770,0.003161,-0.544100,-0.004920,-0.470500,0.882400
0.252000,0.593300,0.354200,0.021400,-0.531700,0.846700
-0.375600,0.687800,0.390400,0.131600,0.333700,-0.933400
-0.073860,-0.590000,-0.320000,0.000005,-0.865600,-0.500800
0.032500,0.584200,0.354300,0.020390,-0.487500,0.872900
-0.200800,0.046260,0.130100,0.000000,-1.000000,0.000000
-0.435500,0.679400,0.385500,-0.999900,-0.001398,0.011110
-0.164600,0.811100,0.476900,0.000036,-0.447900,0.894100
0.404100,0.003585,0.010640,0.234800,0.972000,0.006556
0.032140,0.650400,0.391400,0.020770,-0.488300,0.872400
-0.417700,-0.361900,0.192400,0.002193,-0.251100,-0.968000
-0.209800,0.046260,0.107700,0.000000,-1.000000,0.000000
0.435900,-0.037520,0.121200,1.000000,0.000000,0.000000
-0.030620,0.563100,0.343600,0.020030,-0.579700,0.814600
-0.316000,0.016930,-0.534200,0.265600,-0.434800,0.860500
0.358800,0.654100,0.373500,0.042260,-0.362600,0.931000
0.126300,0.631100,0.376200,-0.020110,0.487700,-0.872800
0.262800,0.665600,0.390400,0.096220,-0.415500,0.904500
-0.420300,-0.569900,-0.322500,-0.007231,0.488300,-0.872600
-0.106300,0.576300,0.351000,-0.020710,0.487900,-0.872600
0.401100,0.003243,-0.174900,-0.882300,-0.470600,0.000005
-0.192000,0.756200,0.435000,0.063390,0.450200,-0.890700
-0.435500,-0.055420,-0.026730,-1.000000,-0.004564,0.008057
-0.435400,-0.629000,0.273500,-1.000000,-0.000037,-0.000149
0.430200,0.703100,0.389400,0.060660,0.509400,-0.858400
-0.047350,-0.008735,0.200100,0.000024,-0.477300,-0.878700
-0.146800,0.604100,0.367500,-0.020820,0.488600,-0.872200
0.184500,-0.579300,-0.326600,0.000000,0.476500,-0.879200
0.435900,-0.333200,0.197300,0.999900,-0.006206,0.012400
-0.326000,0.704300,0.404100,-0.147400,-0.299500,0.942600
-0.409900,-0.510700,-0.263200,0.400200,-0.501200,0.767200
0.435900,-0.772400,0.313800,1.000000,0.000000,0.000000
0.094860,0.625300,0.375900,0.039070,-0.488000,0.872000
0.106500,-0.002903,0.197000,-0.000000,-0.469100,-0.883200
0.259600,0.831700,0.464000,-0.015210,0.955900,0.293400
0.319000,-0.569900,0.249500,0.000000,-0.282500,-0.959300
-0.326300,0.046260,-0.044640,0.000000,-1.000000,0.000000
0.423100,-0.686800,0.304300,-0.000246,0.250000,0.968200
0.309800,0.015620,-0.534300,0.220900,0.468200,-0.855500
-0.383600,0.038870,-0.205900,-0.883000,0.469400,0.000000
-0.257600,0.825900,0.475000,0.000000,0.868200,0.496200
0.379700,0.045810,-0.117800,0.585600,0.810600,0.000000
0.394600,0.017350,-0.068530,0.883200,0.469000,0.000000
0.005298,0.035130,0.176800,-0.000017,-0.469900,-0.882700
-0.433500,-0.450600,0.215500,-0.398600,-0.266300,-0.877600
0.408700,0.531500,0.309400,-0.999900,0.004913,-0.008819
0.435700,-0.360200,-0.201300,0.980200,0.094260,-0.173900
0.421600,-0.052370,0.140300,-0.000214,0.250800,0.968000
0.404100,-0.587100,-0.325900,-0.392600,-0.791300,-0.468700
0.145700,0.043390,0.173900,0.025890,0.500200,0.865500
0.412700,0.000506,0.023750,0.359100,-0.491800,0.793200
0.412100,-0.016980,0.130800,-0.171100,0.306500,0.936400
-0.411000,-0.031040,0.106900,0.201500,-0.322700,-0.924800
-0.061910,0.755600,0.440000,0.001044,0.035140,-0.999400
-0.426300,0.735300,0.407700,-0.259600,0.525900,-0.810000
-0.419300,-0.219900,0.155700,0.000155,-0.251300,-0.967900
-0.456300,0.038650,0.089790,-1.000000,0.001528,-0.001205
0.411100,0.041840,0.046640,-0.055610,-0.571400,0.818800
-0.275900,-0.008735,0.200100,-0.000025,-0.477300,-0.878700
-0.424800,0.594300,0.328400,-0.006840,0.487500,-0.873100
0.048620,0.805200,0.456800,0.000000,-0.955800,-0.294000
0.240900,-0.002903,0.197000,-0.000000,-0.469000,-0.883200
-0.410300,0.102100,0.053230,0.123500,0.512000,-0.850000
0.384000,0.035370,0.062910,-0.882900,-0.469600,0.000000
-0.384500,-0.571200,0.272100,0.000035,0.231800,0.972800
-0.194000,0.536700,0.332200,0.031600,-0.511600,0.858600
0.432700,-0.085510,0.148200,0.433300,0.286800,0.854400
-0.088540,0.662500,0.398800,-0.020890,0.488600,-0.872300
-0.415600,-0.121500,-0.071860,0.022210,0.485300,-0.874000
-0.165000,-0.577400,-0.301700,-0.000234,0.339300,0.940700
-0.408400,-0.732100,-0.403100,1.000000,0.004531,-0.008176
-0.434900,0.648900,0.384800,-0.875800,-0.239000,0.419300
0.317600,-0.003756,0.198700,0.207600,0.448800,0.869200
-0.383600,0.038870,-0.358300,-0.883000,0.469400,0.000000
0.408800,-0.776900,0.313800,-1.000000,0.000000,0.000000
0.314200,0.757200,0.427100,0.063390,-0.405100,0.912100
0.144200,0.623400,0.373700,0.020970,-0.489800,0.871600
-0.420400,0.078610,0.106400,-0.000041,0.250100,0.968200
0.435200,0.007300,0.022520,0.999400,-0.017560,0.031340
0.166700,0.657600,0.390100,-0.020550,0.487800,-0.872700
-0.338300,0.041720,0.164500,-0.264400,0.534800,0.802500
0.237900,-0.591600,-0.317300,-0.000010,-0.865900,-0.500100
0.395100,-0.592500,-0.309700,-0.017490,-0.490500,0.871300
0.299500,-0.576300,0.251300,0.000000,-0.315200,-0.949000
-0.070910,0.574200,0.351200,0.020700,-0.489600,0.871700
-0.119000,0.799300,0.467600,0.000000,-0.964900,-0.262700
0.193500,-0.581700,-0.303200,-0.001586,-0.498900,0.866700
-0.396500,-0.004535,0.130900,0.852900,-0.469300,-0.228600
-0.339400,0.006791,-0.534500,-0.228500,0.469300,-0.853000
0.122900,-0.557700,0.268300,0.000000,0.440900,0.897600
0.190600,0.535300,0.321800,-0.030680,-0.398800,-0.916500
0.399000,0.661600,0.370600,-0.046280,-0.496900,0.866600
0.435800,0.388200,0.224200,0.999900,-0.004944,0.008883
-0.399300,0.009387,-0.089440,-0.883000,0.469400,0.000000
-0.106800,0.600000,0.365300,0.020510,-0.444500,0.895500
-0.061910,0.041210,-0.523300,-0.004497,-0.703500,0.710700
0.148700,0.582700,0.348600,-0.020720,0.488300,-0.872400
0.417500,-0.679200,-0.383600,0.001626,0.488600,-0.872500
-0.035030,0.809600,0.448900,0.000000,0.459600,-0.888100
0.381200,0.010770,-0.493000,-0.666300,-0.498500,0.554600
-0.061950,0.535700,0.328900,0.021360,-0.514500,0.857200
0.277100,0.038080,0.175200,0.000000,-0.469800,-0.882800
0.162200,0.557200,0.334000,-0.020480,0.488100,-0.872600
-0.415600,-0.292500,-0.140100,0.041420,-0.488900,0.871400
-0.435500,0.074510,0.044960,-1.000000,-0.004000,0.006391
0.269700,0.031030,-0.526700,-0.005819,-0.533500,0.845800
0.197600,0.694400,0.408800,0.101200,-0.350400,0.931100
0.404100,-0.002402,-0.149200,-0.882800,-0.469800,-0.000050
0.094920,0.017450,0.186200,0.000000,-0.470000,-0.882600
0.422000,-0.213000,0.181400,-0.037300,0.247700,0.968100
-0.123200,0.825900,0.475000,0.000000,0.868200,0.496200
-0.409400,-0.009950,-0.425500,-0.939200,0.343200,0.000000
-0.142600,0.046260,0.161500,0.000000,-0.996600,-0.082460
-0.196300,-0.011560,0.202200,-0.000002,-0.032000,0.999500
-0.030560,0.037540,-0.526500,0.005010,0.469500,-0.882900
-0.015990,0.822300,0.479300,0.000022,0.788500,0.615000
0.215800,0.552800,0.331300,0.020480,-0.487800,0.872700
-0.017100,0.019520,0.186100,0.000000,0.470000,0.882700
-0.415900,0.631700,0.349200,-0.001809,0.487500,-0.873100
-0.344600,0.696500,0.397400,0.126700,0.272700,-0.953700
0.413600,-0.727700,-0.410700,-0.038410,0.501800,-0.864200
-0.124400,0.633500,0.385700,0.020870,-0.487700,0.872800
0.387000,0.031540,-0.297000,0.899100,0.437800,-0.006311
